ply
		format ascii 1.0
		element vertex 61449
		property float x
		property float y
		property float z
		property uchar red
		property uchar green
		property uchar blue
		end_header
283.000000 -153.000000 6.612000 184 136 120
284.000000 -153.000000 6.568500 185 137 121
285.000000 -153.000000 6.546750 185 137 121
286.000000 -153.000000 6.590250 184 136 120
287.000000 -153.000000 6.612000 184 136 121
288.000000 -153.000000 6.677250 183 135 122
289.000000 -153.000000 6.699000 183 136 124
290.000000 -153.000000 6.764250 183 136 124
291.000000 -153.000000 6.916500 182 134 121
292.000000 -153.000000 6.938250 182 135 121
293.000000 -153.000000 6.981750 180 133 119
294.000000 -153.000000 6.981750 180 133 120
295.000000 -153.000000 6.981750 179 133 123
296.000000 -153.000000 6.981750 178 130 122
297.000000 -153.000000 7.003500 176 128 119
298.000000 -153.000000 6.981750 174 125 116
299.000000 -153.000000 6.981750 171 122 112
300.000000 -153.000000 6.916500 171 121 108
301.000000 -153.000000 6.894750 170 119 105
302.000000 -153.000000 6.894750 174 124 109
303.000000 -153.000000 6.894750 178 130 115
304.000000 -153.000000 6.873000 182 133 120
305.000000 -153.000000 6.829500 186 137 125
306.000000 -153.000000 6.807750 187 138 127
307.000000 -153.000000 6.742500 187 139 127
308.000000 -153.000000 6.786000 188 140 129
309.000000 -153.000000 6.873000 185 139 126
310.000000 -153.000000 6.938250 183 137 123
311.000000 -153.000000 6.938250 181 135 122
312.000000 -153.000000 6.938250 182 136 124
313.000000 -153.000000 6.960000 182 135 125
314.000000 -153.000000 6.960000 179 133 123
315.000000 -153.000000 0.000000 178 133 121
316.000000 -153.000000 0.000000 178 134 120
317.000000 -153.000000 0.000000 170 125 113
318.000000 -153.000000 0.000000 171 127 117
319.000000 -153.000000 0.000000 181 142 137
30.000000 -154.000000 5.568000 5 5 14
31.000000 -154.000000 5.589750 5 5 14
32.000000 -154.000000 5.589750 6 6 14
33.000000 -154.000000 5.589750 7 6 13
34.000000 -154.000000 5.589750 7 5 13
43.000000 -154.000000 8.787000 7 6 15
44.000000 -154.000000 8.960999 7 5 15
45.000000 -154.000000 8.960999 7 6 16
46.000000 -154.000000 8.960999 7 7 16
51.000000 -154.000000 10.092000 9 8 15
52.000000 -154.000000 10.092000 7 6 13
53.000000 -154.000000 10.092000 8 7 14
54.000000 -154.000000 10.092000 8 7 14
55.000000 -154.000000 10.092000 8 7 14
56.000000 -154.000000 10.092000 8 8 13
57.000000 -154.000000 10.092000 8 7 12
58.000000 -154.000000 10.092000 8 8 14
59.000000 -154.000000 10.092000 7 7 14
60.000000 -154.000000 10.092000 6 7 15
61.000000 -154.000000 10.092000 4 8 16
62.000000 -154.000000 10.092000 4 10 17
63.000000 -154.000000 10.092000 7 12 20
64.000000 -154.000000 10.092000 6 12 18
65.000000 -154.000000 10.092000 3 13 17
66.000000 -154.000000 10.092000 17 37 35
67.000000 -154.000000 10.092000 48 84 76
68.000000 -154.000000 10.092000 77 126 112
69.000000 -154.000000 10.092000 76 134 115
70.000000 -154.000000 10.092000 70 136 112
71.000000 -154.000000 10.092000 71 143 114
72.000000 -154.000000 10.092000 71 147 114
73.000000 -154.000000 10.092000 78 158 121
74.000000 -154.000000 10.092000 76 160 120
75.000000 -154.000000 2.892750 81 167 127
76.000000 -154.000000 2.892750 81 169 128
77.000000 -154.000000 2.892750 78 166 125
78.000000 -154.000000 2.914500 82 171 130
79.000000 -154.000000 8.634749 74 164 124
80.000000 -154.000000 8.634749 61 154 114
81.000000 -154.000000 8.634749 68 165 124
82.000000 -154.000000 8.634749 73 173 132
83.000000 -154.000000 7.308000 74 174 133
84.000000 -154.000000 7.242750 67 167 126
85.000000 -154.000000 7.221000 51 152 111
86.000000 -154.000000 7.221000 56 156 114
87.000000 -154.000000 7.242750 72 171 129
88.000000 -154.000000 7.286250 82 180 137
89.000000 -154.000000 7.308000 82 181 137
90.000000 -154.000000 7.329750 68 168 123
102.000000 -154.000000 3.458250 13 99 59
103.000000 -154.000000 3.436500 21 106 66
104.000000 -154.000000 3.436500 42 126 86
105.000000 -154.000000 3.393000 63 148 108
106.000000 -154.000000 3.393000 69 153 115
107.000000 -154.000000 3.414750 65 147 109
108.000000 -154.000000 3.480000 46 124 87
109.000000 -154.000000 6.242250 41 114 78
110.000000 -154.000000 6.285750 46 117 81
111.000000 -154.000000 6.242250 59 131 93
118.000000 -154.000000 6.677250 53 125 75
129.000000 -154.000000 10.092000 54 121 78
130.000000 -154.000000 10.092000 57 123 80
131.000000 -154.000000 10.092000 41 108 63
132.000000 -154.000000 10.092000 82 151 100
133.000000 -154.000000 10.092000 116 187 129
134.000000 -154.000000 10.092000 122 194 132
135.000000 -154.000000 10.092000 109 182 118
136.000000 -154.000000 10.092000 96 168 102
137.000000 -154.000000 10.092000 95 163 97
138.000000 -154.000000 10.092000 91 154 88
139.000000 -154.000000 10.092000 90 149 82
140.000000 -154.000000 10.092000 93 150 83
141.000000 -154.000000 10.092000 111 167 100
142.000000 -154.000000 10.092000 114 173 109
143.000000 -154.000000 10.092000 137 198 137
144.000000 -154.000000 10.092000 168 229 173
145.000000 -154.000000 10.092000 180 240 189
146.000000 -154.000000 10.092000 178 240 193
147.000000 -154.000000 10.092000 154 223 177
148.000000 -154.000000 10.092000 129 205 158
149.000000 -154.000000 10.092000 80 165 118
150.000000 -154.000000 9.874499 65 157 111
151.000000 -154.000000 9.874499 103 200 153
152.000000 -154.000000 9.830999 94 194 145
153.000000 -154.000000 9.852750 64 167 114
154.000000 -154.000000 4.241250 119 219 165
155.000000 -154.000000 4.219500 122 225 166
156.000000 -154.000000 4.219500 92 198 135
157.000000 -154.000000 4.219500 68 175 109
158.000000 -154.000000 4.350000 86 191 125
159.000000 -154.000000 7.677750 125 226 162
160.000000 -154.000000 7.677750 106 206 143
161.000000 -154.000000 7.699500 86 188 125
162.000000 -154.000000 7.743000 49 149 89
163.000000 -154.000000 7.699500 43 140 84
168.000000 -154.000000 9.352500 87 186 132
169.000000 -154.000000 9.309000 75 175 117
170.000000 -154.000000 9.265500 73 174 112
173.000000 -154.000000 8.808750 85 172 113
174.000000 -154.000000 8.808750 115 188 134
175.000000 -154.000000 8.830500 85 144 95
176.000000 -154.000000 8.830500 54 104 58
191.000000 -154.000000 9.787499 11 8 10
192.000000 -154.000000 9.765750 13 10 16
193.000000 -154.000000 9.722250 6 5 12
194.000000 -154.000000 9.678750 5 4 10
195.000000 -154.000000 9.700500 12 11 14
196.000000 -154.000000 9.700500 39 37 37
197.000000 -154.000000 9.722250 120 115 112
198.000000 -154.000000 9.743999 133 123 120
199.000000 -154.000000 9.743999 125 111 110
200.000000 -154.000000 9.743999 122 106 106
201.000000 -154.000000 9.743999 104 87 85
202.000000 -154.000000 9.743999 97 79 74
203.000000 -154.000000 9.743999 108 91 82
204.000000 -154.000000 9.722250 107 90 80
205.000000 -154.000000 9.722250 110 94 83
206.000000 -154.000000 9.635250 107 89 80
207.000000 -154.000000 9.548250 117 98 93
208.000000 -154.000000 9.461249 116 94 92
209.000000 -154.000000 9.417749 117 95 95
210.000000 -154.000000 9.396000 119 98 96
211.000000 -154.000000 9.396000 120 99 94
212.000000 -154.000000 9.352500 115 94 88
213.000000 -154.000000 9.330750 111 90 83
214.000000 -154.000000 9.309000 118 97 91
215.000000 -154.000000 9.309000 101 84 78
216.000000 -154.000000 9.330750 61 48 41
217.000000 -154.000000 9.309000 37 29 22
218.000000 -154.000000 9.309000 13 9 5
219.000000 -154.000000 9.265500 21 18 14
220.000000 -154.000000 9.222000 34 32 29
221.000000 -154.000000 9.156750 41 40 41
222.000000 -154.000000 9.047999 22 25 30
223.000000 -154.000000 8.787000 22 28 36
224.000000 -154.000000 8.787000 13 24 34
225.000000 -154.000000 8.787000 6 21 36
226.000000 -154.000000 8.743500 3 18 39
227.000000 -154.000000 8.743500 3 20 48
228.000000 -154.000000 8.808750 19 40 74
229.000000 -154.000000 8.917500 44 73 112
230.000000 -154.000000 8.939250 37 70 109
231.000000 -154.000000 8.960999 12 40 77
232.000000 -154.000000 8.960999 1 26 59
233.000000 -154.000000 9.004499 1 20 47
234.000000 -154.000000 9.004499 0 12 34
235.000000 -154.000000 8.700000 0 7 24
236.000000 -154.000000 8.373750 0 6 18
237.000000 -154.000000 8.199750 0 7 17
238.000000 -154.000000 8.243250 0 6 14
239.000000 -154.000000 8.330250 0 7 14
240.000000 -154.000000 8.395500 2 13 18
241.000000 -154.000000 8.482500 2 13 18
242.000000 -154.000000 8.569500 19 39 41
243.000000 -154.000000 8.787000 59 87 87
244.000000 -154.000000 9.134999 94 125 122
245.000000 -154.000000 9.374249 71 101 97
246.000000 -154.000000 9.439500 18 38 40
247.000000 -154.000000 9.483000 22 44 52
248.000000 -154.000000 9.483000 80 104 118
249.000000 -154.000000 9.504749 117 125 135
250.000000 -154.000000 9.504749 158 142 142
251.000000 -154.000000 9.526500 177 140 131
252.000000 -154.000000 9.526500 181 135 124
253.000000 -154.000000 9.526500 187 136 124
254.000000 -154.000000 9.526500 188 136 124
255.000000 -154.000000 6.829500 192 140 128
256.000000 -154.000000 6.742500 193 142 128
257.000000 -154.000000 6.720750 189 138 122
258.000000 -154.000000 6.720750 186 134 117
259.000000 -154.000000 6.720750 189 136 120
260.000000 -154.000000 6.742500 191 138 124
261.000000 -154.000000 6.742500 190 138 125
262.000000 -154.000000 6.742500 189 138 126
263.000000 -154.000000 6.677250 189 138 126
264.000000 -154.000000 6.677250 188 138 125
265.000000 -154.000000 6.699000 189 138 123
266.000000 -154.000000 6.851250 187 136 121
267.000000 -154.000000 6.873000 187 135 119
268.000000 -154.000000 6.873000 187 136 118
269.000000 -154.000000 6.851250 186 136 118
270.000000 -154.000000 6.764250 185 136 119
271.000000 -154.000000 6.742500 184 135 119
272.000000 -154.000000 6.742500 183 135 119
273.000000 -154.000000 6.699000 180 132 117
274.000000 -154.000000 6.699000 172 125 112
275.000000 -154.000000 6.699000 171 125 112
276.000000 -154.000000 6.699000 175 129 115
277.000000 -154.000000 6.699000 182 136 122
278.000000 -154.000000 6.699000 183 136 122
279.000000 -154.000000 6.699000 183 135 121
280.000000 -154.000000 6.720750 183 135 120
281.000000 -154.000000 6.720750 183 135 119
282.000000 -154.000000 6.720750 183 135 119
283.000000 -154.000000 6.655500 183 135 119
284.000000 -154.000000 6.612000 182 135 119
285.000000 -154.000000 6.590250 184 137 121
286.000000 -154.000000 6.612000 184 136 120
287.000000 -154.000000 6.633750 184 137 121
288.000000 -154.000000 6.699000 186 138 124
289.000000 -154.000000 6.742500 185 138 124
290.000000 -154.000000 6.851250 185 137 124
291.000000 -154.000000 6.916500 185 137 123
292.000000 -154.000000 6.938250 183 135 121
293.000000 -154.000000 6.960000 182 134 121
294.000000 -154.000000 6.981750 182 135 123
295.000000 -154.000000 6.981750 182 135 125
296.000000 -154.000000 6.981750 180 133 124
297.000000 -154.000000 6.981750 179 132 122
298.000000 -154.000000 6.981750 181 133 122
299.000000 -154.000000 6.960000 180 132 119
300.000000 -154.000000 6.894750 179 130 116
301.000000 -154.000000 6.873000 177 128 113
302.000000 -154.000000 6.873000 175 126 110
303.000000 -154.000000 6.873000 173 125 111
304.000000 -154.000000 6.829500 173 125 112
305.000000 -154.000000 6.764250 175 126 115
306.000000 -154.000000 6.677250 176 126 115
307.000000 -154.000000 6.655500 177 128 117
308.000000 -154.000000 6.655500 180 132 121
309.000000 -154.000000 6.786000 182 136 122
310.000000 -154.000000 6.873000 185 140 126
311.000000 -154.000000 6.873000 186 141 126
312.000000 -154.000000 6.873000 186 140 127
313.000000 -154.000000 6.894750 184 139 127
314.000000 -154.000000 6.851250 183 139 127
315.000000 -154.000000 0.000000 182 138 125
316.000000 -154.000000 0.000000 181 137 124
317.000000 -154.000000 0.000000 181 137 126
318.000000 -154.000000 0.000000 180 137 128
319.000000 -154.000000 0.000000 182 143 136
30.000000 -155.000000 5.568000 4 6 15
31.000000 -155.000000 5.589750 4 7 15
32.000000 -155.000000 5.589750 6 8 15
33.000000 -155.000000 5.589750 5 5 12
42.000000 -155.000000 8.613000 7 6 16
43.000000 -155.000000 8.787000 5 5 14
44.000000 -155.000000 8.917500 6 6 15
45.000000 -155.000000 8.960999 6 8 16
46.000000 -155.000000 8.982750 6 8 16
47.000000 -155.000000 8.982750 6 7 15
51.000000 -155.000000 10.092000 9 8 16
52.000000 -155.000000 10.092000 8 7 14
53.000000 -155.000000 10.092000 8 7 14
54.000000 -155.000000 10.092000 8 7 14
55.000000 -155.000000 10.092000 8 7 14
56.000000 -155.000000 10.092000 8 8 15
57.000000 -155.000000 10.092000 7 8 15
58.000000 -155.000000 10.092000 8 8 15
59.000000 -155.000000 10.092000 6 7 15
60.000000 -155.000000 10.092000 6 8 16
61.000000 -155.000000 10.092000 5 11 16
62.000000 -155.000000 10.092000 3 12 16
63.000000 -155.000000 10.092000 5 15 17
64.000000 -155.000000 10.092000 15 28 29
65.000000 -155.000000 10.092000 37 64 61
66.000000 -155.000000 10.092000 65 103 97
67.000000 -155.000000 10.092000 75 125 113
68.000000 -155.000000 10.092000 63 122 105
69.000000 -155.000000 10.092000 66 132 109
70.000000 -155.000000 10.092000 71 141 115
71.000000 -155.000000 10.092000 73 145 115
72.000000 -155.000000 10.092000 81 155 122
73.000000 -155.000000 10.092000 81 158 122
74.000000 -155.000000 2.827500 84 164 126
75.000000 -155.000000 2.784000 81 162 123
76.000000 -155.000000 2.827500 82 165 125
77.000000 -155.000000 2.849250 82 167 127
78.000000 -155.000000 2.849250 75 161 122
79.000000 -155.000000 2.849250 62 152 112
80.000000 -155.000000 2.849250 66 159 120
81.000000 -155.000000 2.849250 73 169 130
82.000000 -155.000000 7.264500 72 170 130
83.000000 -155.000000 7.264500 66 165 126
84.000000 -155.000000 7.221000 51 149 110
85.000000 -155.000000 7.221000 55 154 114
86.000000 -155.000000 7.221000 68 167 127
87.000000 -155.000000 7.242750 82 179 140
88.000000 -155.000000 7.264500 87 185 144
89.000000 -155.000000 10.092000 67 164 122
90.000000 -155.000000 10.092000 66 164 120
102.000000 -155.000000 3.436500 18 104 65
103.000000 -155.000000 3.436500 38 124 84
104.000000 -155.000000 3.436500 70 157 116
105.000000 -155.000000 3.327750 69 157 115
106.000000 -155.000000 3.327750 58 145 105
107.000000 -155.000000 3.371250 46 130 91
108.000000 -155.000000 3.436500 35 114 76
109.000000 -155.000000 3.480000 45 119 83
118.000000 -155.000000 6.699000 61 128 75
129.000000 -155.000000 10.092000 57 125 84
130.000000 -155.000000 10.092000 64 132 90
131.000000 -155.000000 10.092000 61 130 85
132.000000 -155.000000 10.092000 108 180 130
133.000000 -155.000000 10.092000 126 201 143
134.000000 -155.000000 10.092000 113 188 126
135.000000 -155.000000 10.092000 88 163 98
136.000000 -155.000000 10.092000 84 158 91
137.000000 -155.000000 10.092000 89 159 92
138.000000 -155.000000 10.092000 96 161 93
139.000000 -155.000000 10.092000 103 162 95
140.000000 -155.000000 10.092000 115 172 105
141.000000 -155.000000 10.092000 128 185 119
142.000000 -155.000000 10.092000 129 190 127
143.000000 -155.000000 10.092000 170 231 174
144.000000 -155.000000 10.092000 173 235 180
145.000000 -155.000000 10.092000 162 224 173
146.000000 -155.000000 10.092000 162 225 178
147.000000 -155.000000 10.092000 149 217 172
148.000000 -155.000000 10.092000 85 159 114
149.000000 -155.000000 9.896250 54 139 93
150.000000 -155.000000 9.787499 90 184 138
151.000000 -155.000000 9.787499 103 202 154
152.000000 -155.000000 9.809250 53 154 104
153.000000 -155.000000 9.809250 86 188 137
154.000000 -155.000000 9.809250 138 236 185
155.000000 -155.000000 4.197750 105 207 149
157.000000 -155.000000 4.219500 60 165 102
158.000000 -155.000000 10.092000 103 206 143
159.000000 -155.000000 10.092000 107 208 145
160.000000 -155.000000 7.743000 86 187 124
161.000000 -155.000000 7.677750 86 188 127
162.000000 -155.000000 7.677750 62 162 105
163.000000 -155.000000 7.656000 48 146 91
168.000000 -155.000000 9.200250 87 186 136
169.000000 -155.000000 9.265500 49 149 97
170.000000 -155.000000 9.265500 65 167 112
171.000000 -155.000000 9.265500 86 188 130
172.000000 -155.000000 8.808750 68 167 108
173.000000 -155.000000 8.808750 96 187 130
174.000000 -155.000000 8.808750 105 183 129
175.000000 -155.000000 8.830500 102 166 115
176.000000 -155.000000 8.830500 65 118 70
177.000000 -155.000000 0.000000 56 104 61
190.000000 -155.000000 9.743999 31 30 23
191.000000 -155.000000 9.743999 24 18 19
192.000000 -155.000000 9.743999 27 20 24
193.000000 -155.000000 9.678750 12 8 12
194.000000 -155.000000 9.657000 6 3 9
195.000000 -155.000000 9.657000 9 7 11
196.000000 -155.000000 9.700500 16 13 14
197.000000 -155.000000 9.700500 70 65 64
198.000000 -155.000000 9.700500 115 107 105
199.000000 -155.000000 9.722250 113 102 101
200.000000 -155.000000 9.722250 110 97 96
201.000000 -155.000000 9.722250 113 98 96
202.000000 -155.000000 9.722250 103 87 82
203.000000 -155.000000 9.722250 114 98 89
204.000000 -155.000000 9.722250 118 101 90
205.000000 -155.000000 9.678750 111 94 83
206.000000 -155.000000 9.570000 109 92 82
207.000000 -155.000000 9.526500 119 101 93
208.000000 -155.000000 9.461249 115 96 92
209.000000 -155.000000 9.417749 116 97 95
210.000000 -155.000000 9.396000 120 102 98
211.000000 -155.000000 9.396000 117 100 94
212.000000 -155.000000 9.374249 114 98 89
213.000000 -155.000000 9.352500 119 100 92
214.000000 -155.000000 9.330750 123 102 96
215.000000 -155.000000 9.309000 119 99 94
216.000000 -155.000000 9.309000 106 91 85
217.000000 -155.000000 9.287250 65 55 48
218.000000 -155.000000 9.265500 17 12 8
219.000000 -155.000000 9.222000 8 5 2
220.000000 -155.000000 9.156750 9 7 6
221.000000 -155.000000 9.091499 7 8 12
222.000000 -155.000000 8.982750 7 12 21
223.000000 -155.000000 8.787000 5 14 26
224.000000 -155.000000 8.787000 2 14 31
225.000000 -155.000000 8.787000 1 18 41
226.000000 -155.000000 8.743500 6 28 57
227.000000 -155.000000 8.743500 27 55 90
228.000000 -155.000000 8.808750 53 85 123
229.000000 -155.000000 8.917500 41 73 113
230.000000 -155.000000 8.939250 12 37 75
231.000000 -155.000000 8.960999 1 20 55
232.000000 -155.000000 8.982750 0 17 47
233.000000 -155.000000 9.004499 0 10 33
234.000000 -155.000000 9.026250 0 6 23
235.000000 -155.000000 9.026250 0 5 18
236.000000 -155.000000 8.656500 0 4 16
237.000000 -155.000000 8.308499 0 6 16
238.000000 -155.000000 8.308499 0 6 14
239.000000 -155.000000 8.395500 0 8 15
240.000000 -155.000000 8.482500 1 14 21
241.000000 -155.000000 8.613000 0 17 25
242.000000 -155.000000 8.700000 1 18 26
243.000000 -155.000000 8.787000 6 29 34
244.000000 -155.000000 9.047999 41 65 66
245.000000 -155.000000 9.265500 92 123 119
246.000000 -155.000000 9.396000 62 91 89
247.000000 -155.000000 9.439500 55 80 83
248.000000 -155.000000 9.461249 98 115 124
249.000000 -155.000000 9.461249 140 136 143
250.000000 -155.000000 9.483000 183 155 153
251.000000 -155.000000 9.504749 196 152 143
252.000000 -155.000000 9.504749 196 148 135
253.000000 -155.000000 9.504749 194 143 130
254.000000 -155.000000 9.504749 191 140 127
255.000000 -155.000000 6.829500 190 139 126
256.000000 -155.000000 6.764250 188 139 124
257.000000 -155.000000 6.742500 187 137 119
258.000000 -155.000000 6.720750 186 135 117
259.000000 -155.000000 6.742500 187 135 117
260.000000 -155.000000 6.742500 190 137 121
261.000000 -155.000000 6.742500 191 139 125
262.000000 -155.000000 6.742500 189 137 125
263.000000 -155.000000 6.655500 187 135 122
264.000000 -155.000000 6.655500 186 135 121
265.000000 -155.000000 6.677250 189 137 122
266.000000 -155.000000 6.829500 190 138 123
267.000000 -155.000000 6.851250 187 135 118
268.000000 -155.000000 6.873000 186 134 116
269.000000 -155.000000 6.851250 186 135 116
270.000000 -155.000000 6.764250 185 135 117
271.000000 -155.000000 6.742500 185 135 118
272.000000 -155.000000 6.742500 184 136 120
273.000000 -155.000000 6.742500 182 134 120
274.000000 -155.000000 6.720750 175 127 114
275.000000 -155.000000 6.720750 164 117 104
276.000000 -155.000000 6.720750 155 109 95
277.000000 -155.000000 6.720750 164 117 103
278.000000 -155.000000 6.720750 178 131 118
279.000000 -155.000000 6.720750 185 137 123
280.000000 -155.000000 6.742500 185 137 122
281.000000 -155.000000 6.764250 185 136 121
282.000000 -155.000000 6.764250 185 138 122
283.000000 -155.000000 6.699000 185 137 122
284.000000 -155.000000 6.655500 184 137 121
285.000000 -155.000000 6.612000 186 140 124
286.000000 -155.000000 6.633750 186 140 123
287.000000 -155.000000 6.677250 183 137 121
288.000000 -155.000000 6.720750 184 137 121
289.000000 -155.000000 6.742500 184 137 121
290.000000 -155.000000 6.851250 183 136 120
291.000000 -155.000000 6.894750 186 138 123
292.000000 -155.000000 6.916500 185 137 123
293.000000 -155.000000 6.938250 185 137 124
294.000000 -155.000000 6.938250 185 137 125
295.000000 -155.000000 6.960000 183 135 124
296.000000 -155.000000 6.960000 182 135 123
297.000000 -155.000000 6.960000 181 134 121
298.000000 -155.000000 6.960000 181 133 119
299.000000 -155.000000 6.938250 182 135 118
300.000000 -155.000000 6.873000 180 132 115
301.000000 -155.000000 6.851250 178 131 113
302.000000 -155.000000 6.851250 179 131 115
303.000000 -155.000000 6.851250 181 132 118
304.000000 -155.000000 6.807750 180 131 119
305.000000 -155.000000 6.699000 179 129 118
306.000000 -155.000000 6.677250 177 127 116
307.000000 -155.000000 6.655500 175 126 115
308.000000 -155.000000 6.655500 174 127 114
309.000000 -155.000000 6.699000 172 126 112
310.000000 -155.000000 6.764250 169 125 110
311.000000 -155.000000 6.764250 173 129 114
312.000000 -155.000000 6.807750 178 133 119
313.000000 -155.000000 6.851250 182 138 125
314.000000 -155.000000 6.829500 186 143 130
315.000000 -155.000000 0.000000 188 144 132
316.000000 -155.000000 0.000000 187 143 132
317.000000 -155.000000 0.000000 185 143 132
318.000000 -155.000000 0.000000 185 142 133
319.000000 -155.000000 0.000000 186 145 140
30.000000 -156.000000 5.568000 5 7 16
31.000000 -156.000000 5.589750 6 7 16
32.000000 -156.000000 5.633250 6 7 16
33.000000 -156.000000 5.589750 4 5 13
34.000000 -156.000000 5.589750 6 4 13
36.000000 -156.000000 5.633250 7 5 13
42.000000 -156.000000 8.613000 6 6 15
43.000000 -156.000000 8.656500 4 5 14
44.000000 -156.000000 8.808750 5 7 15
45.000000 -156.000000 8.917500 6 9 17
46.000000 -156.000000 8.960999 6 9 17
47.000000 -156.000000 8.982750 7 9 17
48.000000 -156.000000 8.852250 6 6 15
52.000000 -156.000000 10.092000 7 7 16
53.000000 -156.000000 10.092000 7 7 15
54.000000 -156.000000 10.092000 7 7 15
55.000000 -156.000000 10.092000 7 7 16
56.000000 -156.000000 10.092000 7 7 16
57.000000 -156.000000 10.092000 7 8 17
58.000000 -156.000000 10.092000 7 8 17
59.000000 -156.000000 10.092000 7 7 17
60.000000 -156.000000 10.092000 9 12 19
61.000000 -156.000000 10.092000 8 14 17
62.000000 -156.000000 10.092000 10 20 20
63.000000 -156.000000 10.092000 29 50 45
64.000000 -156.000000 10.092000 73 103 97
65.000000 -156.000000 10.092000 79 119 112
66.000000 -156.000000 10.092000 58 108 96
67.000000 -156.000000 10.092000 39 98 81
68.000000 -156.000000 10.092000 55 120 99
69.000000 -156.000000 10.092000 71 140 115
70.000000 -156.000000 10.092000 77 147 118
71.000000 -156.000000 10.092000 85 153 124
72.000000 -156.000000 10.092000 86 153 122
73.000000 -156.000000 10.092000 89 155 123
74.000000 -156.000000 2.784000 94 160 126
75.000000 -156.000000 2.784000 95 162 127
76.000000 -156.000000 2.784000 96 166 130
77.000000 -156.000000 2.805750 83 158 120
78.000000 -156.000000 2.827500 63 145 106
79.000000 -156.000000 2.827500 67 154 116
80.000000 -156.000000 2.827500 79 170 133
81.000000 -156.000000 2.805750 75 169 132
82.000000 -156.000000 2.784000 68 164 127
83.000000 -156.000000 2.762250 54 151 114
84.000000 -156.000000 2.762250 59 157 119
85.000000 -156.000000 7.221000 75 172 134
86.000000 -156.000000 2.762250 82 179 141
88.000000 -156.000000 10.092000 72 167 129
89.000000 -156.000000 10.092000 67 162 121
90.000000 -156.000000 10.092000 74 168 125
91.000000 -156.000000 10.092000 61 153 111
92.000000 -156.000000 10.092000 37 128 85
102.000000 -156.000000 3.436500 40 126 87
103.000000 -156.000000 3.436500 72 159 117
104.000000 -156.000000 3.262500 78 165 123
105.000000 -156.000000 3.262500 56 144 101
106.000000 -156.000000 3.284250 42 128 87
107.000000 -156.000000 3.414750 29 112 72
108.000000 -156.000000 7.351500 41 122 82
109.000000 -156.000000 7.351500 74 153 113
113.000000 -156.000000 6.764250 84 155 107
114.000000 -156.000000 6.786000 74 145 95
115.000000 -156.000000 6.764250 58 128 76
116.000000 -156.000000 6.742500 56 125 71
117.000000 -156.000000 6.720750 55 120 65
118.000000 -156.000000 6.720750 84 146 91
119.000000 -156.000000 6.699000 98 156 102
129.000000 -156.000000 10.092000 68 139 98
130.000000 -156.000000 10.092000 84 155 114
131.000000 -156.000000 10.092000 87 160 115
132.000000 -156.000000 10.092000 114 189 138
133.000000 -156.000000 10.092000 101 179 122
134.000000 -156.000000 10.092000 82 160 97
135.000000 -156.000000 10.092000 75 153 86
136.000000 -156.000000 10.092000 84 161 92
137.000000 -156.000000 10.092000 96 168 98
138.000000 -156.000000 10.092000 107 173 104
139.000000 -156.000000 10.092000 118 178 109
140.000000 -156.000000 10.092000 134 194 126
141.000000 -156.000000 10.092000 126 187 121
142.000000 -156.000000 10.092000 154 217 156
143.000000 -156.000000 10.092000 190 249 198
144.000000 -156.000000 10.092000 166 228 176
145.000000 -156.000000 10.092000 142 204 155
146.000000 -156.000000 10.092000 144 205 160
147.000000 -156.000000 10.092000 104 169 126
148.000000 -156.000000 10.092000 46 119 76
149.000000 -156.000000 9.787499 63 147 102
150.000000 -156.000000 3.045000 104 199 152
151.000000 -156.000000 9.765750 70 170 121
152.000000 -156.000000 9.787499 68 170 120
153.000000 -156.000000 9.809250 125 226 175
154.000000 -156.000000 9.809250 109 209 155
157.000000 -156.000000 10.092000 80 182 121
158.000000 -156.000000 10.092000 98 200 138
159.000000 -156.000000 10.092000 77 178 116
160.000000 -156.000000 10.092000 60 161 99
161.000000 -156.000000 7.677750 83 184 125
162.000000 -156.000000 7.656000 86 186 131
163.000000 -156.000000 7.569000 56 154 102
169.000000 -156.000000 9.200250 36 137 90
170.000000 -156.000000 9.243750 60 163 113
171.000000 -156.000000 9.265500 85 189 135
172.000000 -156.000000 9.178500 62 163 107
173.000000 -156.000000 8.808750 89 181 126
174.000000 -156.000000 8.787000 69 149 96
175.000000 -156.000000 8.787000 103 171 119
176.000000 -156.000000 8.743500 105 165 115
177.000000 -156.000000 8.678249 59 115 69
178.000000 -156.000000 0.000000 112 168 126
189.000000 -156.000000 9.743999 38 49 29
190.000000 -156.000000 9.743999 44 40 31
191.000000 -156.000000 9.743999 37 27 24
192.000000 -156.000000 9.700500 32 23 23
193.000000 -156.000000 9.635250 29 23 24
194.000000 -156.000000 9.613500 20 16 18
195.000000 -156.000000 9.613500 13 9 11
196.000000 -156.000000 9.635250 12 7 8
197.000000 -156.000000 9.635250 19 15 14
198.000000 -156.000000 9.657000 48 42 40
199.000000 -156.000000 9.678750 73 65 63
200.000000 -156.000000 9.700500 97 86 84
201.000000 -156.000000 9.700500 105 91 89
202.000000 -156.000000 9.700500 119 103 99
203.000000 -156.000000 9.700500 137 120 112
204.000000 -156.000000 9.678750 132 114 103
205.000000 -156.000000 9.635250 117 98 88
206.000000 -156.000000 9.570000 115 96 86
207.000000 -156.000000 9.504749 125 106 98
208.000000 -156.000000 9.461249 118 99 93
209.000000 -156.000000 9.417749 118 100 95
210.000000 -156.000000 9.396000 120 104 99
211.000000 -156.000000 9.396000 114 100 93
212.000000 -156.000000 9.374249 110 96 88
213.000000 -156.000000 9.374249 119 102 96
214.000000 -156.000000 9.352500 126 105 102
215.000000 -156.000000 9.330750 118 96 93
216.000000 -156.000000 9.309000 111 93 88
217.000000 -156.000000 9.287250 108 97 88
218.000000 -156.000000 9.265500 57 51 44
219.000000 -156.000000 9.222000 19 17 13
220.000000 -156.000000 9.156750 10 11 8
221.000000 -156.000000 9.047999 2 6 9
222.000000 -156.000000 9.004499 2 6 14
223.000000 -156.000000 8.830500 1 9 24
224.000000 -156.000000 8.787000 3 16 37
225.000000 -156.000000 8.787000 16 38 66
226.000000 -156.000000 8.743500 37 69 103
227.000000 -156.000000 8.743500 45 80 117
228.000000 -156.000000 8.787000 31 64 102
229.000000 -156.000000 8.852250 7 35 72
230.000000 -156.000000 8.917500 0 20 54
231.000000 -156.000000 8.960999 0 14 45
232.000000 -156.000000 8.960999 0 9 34
233.000000 -156.000000 9.004499 0 4 24
234.000000 -156.000000 9.047999 0 3 18
235.000000 -156.000000 9.069750 0 4 15
236.000000 -156.000000 8.700000 0 6 17
237.000000 -156.000000 8.351999 0 6 17
238.000000 -156.000000 8.351999 0 5 15
239.000000 -156.000000 8.482500 0 7 16
240.000000 -156.000000 8.613000 0 11 20
241.000000 -156.000000 8.700000 0 18 27
242.000000 -156.000000 8.743500 1 22 32
243.000000 -156.000000 8.787000 3 26 35
244.000000 -156.000000 9.004499 9 27 32
245.000000 -156.000000 9.178500 66 92 90
246.000000 -156.000000 9.352500 111 141 136
247.000000 -156.000000 9.396000 92 115 112
248.000000 -156.000000 9.417749 118 125 125
249.000000 -156.000000 9.417749 166 149 149
250.000000 -156.000000 9.439500 191 153 148
251.000000 -156.000000 9.461249 198 149 139
252.000000 -156.000000 9.483000 198 148 134
253.000000 -156.000000 9.483000 200 150 135
254.000000 -156.000000 9.461249 202 151 138
255.000000 -156.000000 6.873000 201 150 136
256.000000 -156.000000 6.807750 196 147 130
257.000000 -156.000000 6.764250 193 144 125
258.000000 -156.000000 6.742500 191 139 119
259.000000 -156.000000 6.764250 187 135 116
260.000000 -156.000000 6.807750 187 135 118
261.000000 -156.000000 6.807750 185 133 117
262.000000 -156.000000 6.742500 185 132 118
263.000000 -156.000000 6.655500 185 133 119
264.000000 -156.000000 6.655500 186 134 119
265.000000 -156.000000 6.655500 187 135 120
266.000000 -156.000000 6.764250 188 136 120
267.000000 -156.000000 6.829500 187 135 117
268.000000 -156.000000 6.829500 187 135 117
269.000000 -156.000000 6.829500 186 136 116
270.000000 -156.000000 6.742500 185 135 116
271.000000 -156.000000 6.742500 184 135 117
272.000000 -156.000000 6.742500 184 135 119
273.000000 -156.000000 6.742500 185 136 122
274.000000 -156.000000 6.742500 184 136 123
275.000000 -156.000000 6.742500 182 135 121
276.000000 -156.000000 6.720750 175 129 115
277.000000 -156.000000 6.720750 170 124 110
278.000000 -156.000000 6.720750 177 129 117
279.000000 -156.000000 6.720750 183 134 122
280.000000 -156.000000 6.742500 185 136 122
281.000000 -156.000000 6.742500 184 134 120
282.000000 -156.000000 6.720750 185 135 121
283.000000 -156.000000 6.699000 185 137 122
284.000000 -156.000000 6.677250 184 138 124
285.000000 -156.000000 6.655500 186 141 126
286.000000 -156.000000 6.677250 184 140 125
287.000000 -156.000000 6.720750 181 136 121
288.000000 -156.000000 6.720750 184 136 121
289.000000 -156.000000 6.742500 186 138 123
290.000000 -156.000000 6.851250 185 137 121
291.000000 -156.000000 6.873000 184 136 121
292.000000 -156.000000 6.894750 183 135 120
293.000000 -156.000000 6.916500 182 134 120
294.000000 -156.000000 6.916500 181 133 120
295.000000 -156.000000 6.916500 179 131 118
296.000000 -156.000000 6.938250 181 133 118
297.000000 -156.000000 6.938250 183 136 120
298.000000 -156.000000 6.938250 183 135 117
299.000000 -156.000000 6.894750 183 136 116
300.000000 -156.000000 6.829500 184 137 116
301.000000 -156.000000 6.829500 183 136 116
302.000000 -156.000000 6.851250 184 135 118
303.000000 -156.000000 6.851250 184 134 119
304.000000 -156.000000 6.764250 182 132 118
305.000000 -156.000000 6.720750 182 132 119
306.000000 -156.000000 6.677250 182 131 119
307.000000 -156.000000 6.677250 181 131 119
308.000000 -156.000000 6.677250 180 132 119
309.000000 -156.000000 6.699000 180 135 120
310.000000 -156.000000 6.742500 175 131 117
311.000000 -156.000000 6.764250 171 127 114
312.000000 -156.000000 6.764250 170 125 112
313.000000 -156.000000 6.829500 170 126 114
314.000000 -156.000000 6.829500 171 128 116
315.000000 -156.000000 0.000000 174 130 118
316.000000 -156.000000 0.000000 181 138 126
317.000000 -156.000000 0.000000 183 141 129
318.000000 -156.000000 0.000000 185 143 132
319.000000 -156.000000 0.000000 190 148 144
30.000000 -157.000000 4.176000 8 7 17
31.000000 -157.000000 5.611500 7 7 17
32.000000 -157.000000 5.633250 7 6 16
33.000000 -157.000000 5.633250 6 5 14
34.000000 -157.000000 5.611500 7 5 15
35.000000 -157.000000 5.611500 7 5 14
36.000000 -157.000000 5.633250 8 6 14
37.000000 -157.000000 5.633250 7 6 14
41.000000 -157.000000 8.613000 6 7 16
42.000000 -157.000000 8.634749 5 6 15
43.000000 -157.000000 8.656500 4 6 14
46.000000 -157.000000 8.852250 5 8 16
47.000000 -157.000000 8.982750 4 7 15
48.000000 -157.000000 8.982750 4 5 15
52.000000 -157.000000 10.092000 5 5 19
53.000000 -157.000000 10.092000 5 5 20
54.000000 -157.000000 10.092000 5 6 20
55.000000 -157.000000 10.092000 5 6 20
56.000000 -157.000000 10.092000 5 7 19
57.000000 -157.000000 10.092000 5 7 18
58.000000 -157.000000 10.092000 6 7 18
59.000000 -157.000000 10.092000 7 8 17
60.000000 -157.000000 10.092000 8 12 16
61.000000 -157.000000 10.092000 26 38 37
62.000000 -157.000000 10.092000 56 78 73
63.000000 -157.000000 10.092000 72 105 95
64.000000 -157.000000 10.092000 60 99 87
65.000000 -157.000000 10.092000 37 86 73
66.000000 -157.000000 10.092000 39 96 80
67.000000 -157.000000 10.092000 64 127 107
68.000000 -157.000000 10.092000 74 140 116
69.000000 -157.000000 10.092000 83 149 123
70.000000 -157.000000 10.092000 96 159 131
71.000000 -157.000000 10.092000 109 167 140
72.000000 -157.000000 10.092000 121 176 149
73.000000 -157.000000 2.697000 105 156 128
74.000000 -157.000000 2.740500 122 168 141
75.000000 -157.000000 2.784000 134 179 152
76.000000 -157.000000 2.784000 118 167 138
77.000000 -157.000000 2.805750 96 154 122
78.000000 -157.000000 2.805750 83 153 119
79.000000 -157.000000 2.805750 92 171 136
80.000000 -157.000000 2.805750 84 169 134
81.000000 -157.000000 2.805750 66 156 121
82.000000 -157.000000 2.784000 57 151 117
83.000000 -157.000000 2.740500 66 161 127
84.000000 -157.000000 2.740500 76 172 138
85.000000 -157.000000 2.762250 91 188 152
86.000000 -157.000000 2.784000 90 185 150
87.000000 -157.000000 7.308000 74 166 131
88.000000 -157.000000 10.092000 65 155 119
89.000000 -157.000000 10.092000 72 160 122
90.000000 -157.000000 10.092000 62 149 109
91.000000 -157.000000 10.092000 42 127 87
92.000000 -157.000000 10.092000 53 138 98
93.000000 -157.000000 10.092000 65 150 112
102.000000 -157.000000 3.436500 74 157 119
103.000000 -157.000000 0.696000 79 163 123
104.000000 -157.000000 0.696000 60 144 102
105.000000 -157.000000 0.739500 46 128 85
106.000000 -157.000000 3.284250 44 123 81
107.000000 -157.000000 7.351500 49 126 83
108.000000 -157.000000 7.351500 85 161 118
109.000000 -157.000000 7.351500 86 158 115
110.000000 -157.000000 7.351500 72 139 96
111.000000 -157.000000 7.308000 90 154 111
112.000000 -157.000000 7.264500 102 166 119
113.000000 -157.000000 7.177500 83 148 98
114.000000 -157.000000 7.155750 67 134 81
115.000000 -157.000000 6.829500 63 128 73
116.000000 -157.000000 6.742500 63 125 68
117.000000 -157.000000 6.720750 67 126 67
118.000000 -157.000000 6.720750 80 135 77
128.000000 -157.000000 9.743999 64 135 93
129.000000 -157.000000 10.092000 90 164 122
130.000000 -157.000000 10.092000 100 175 133
131.000000 -157.000000 10.092000 91 168 122
132.000000 -157.000000 10.092000 97 177 124
133.000000 -157.000000 10.092000 87 167 108
134.000000 -157.000000 10.092000 97 177 112
135.000000 -157.000000 10.092000 93 171 103
136.000000 -157.000000 10.092000 92 169 98
137.000000 -157.000000 10.092000 104 177 105
138.000000 -157.000000 10.092000 112 179 107
139.000000 -157.000000 10.092000 132 195 124
140.000000 -157.000000 10.092000 139 202 133
141.000000 -157.000000 10.092000 138 205 139
142.000000 -157.000000 10.092000 174 239 182
143.000000 -157.000000 10.092000 182 246 194
144.000000 -157.000000 10.092000 142 210 157
145.000000 -157.000000 10.092000 118 182 135
146.000000 -157.000000 10.092000 98 161 118
147.000000 -157.000000 10.092000 53 120 78
148.000000 -157.000000 10.092000 40 114 71
149.000000 -157.000000 3.045000 93 178 133
150.000000 -157.000000 3.023250 90 186 138
151.000000 -157.000000 3.066750 63 166 115
152.000000 -157.000000 9.765750 105 209 157
153.000000 -157.000000 9.809250 134 235 183
154.000000 -157.000000 9.809250 79 180 124
155.000000 -157.000000 9.809250 56 157 99
156.000000 -157.000000 10.092000 90 190 131
157.000000 -157.000000 10.092000 94 194 135
158.000000 -157.000000 10.092000 76 176 116
159.000000 -157.000000 10.092000 34 131 70
160.000000 -157.000000 10.092000 29 127 67
161.000000 -157.000000 7.656000 89 189 133
162.000000 -157.000000 7.569000 101 202 149
163.000000 -157.000000 7.308000 70 169 119
164.000000 -157.000000 7.264500 80 179 129
165.000000 -157.000000 7.025250 99 199 149
170.000000 -157.000000 9.113250 69 172 124
171.000000 -157.000000 9.113250 90 192 142
172.000000 -157.000000 8.852250 81 180 129
173.000000 -157.000000 8.787000 85 177 126
174.000000 -157.000000 8.743500 45 127 76
175.000000 -157.000000 8.743500 65 138 87
176.000000 -157.000000 8.721749 107 174 124
177.000000 -157.000000 8.678249 98 161 115
178.000000 -157.000000 0.000000 106 168 126
188.000000 -157.000000 9.700500 72 109 75
189.000000 -157.000000 9.743999 53 62 41
190.000000 -157.000000 9.722250 66 58 47
191.000000 -157.000000 9.700500 55 42 35
192.000000 -157.000000 9.635250 40 27 24
193.000000 -157.000000 9.548250 38 28 26
194.000000 -157.000000 9.548250 41 32 32
195.000000 -157.000000 9.548250 36 29 29
196.000000 -157.000000 9.548250 29 23 21
197.000000 -157.000000 9.570000 23 18 15
198.000000 -157.000000 9.591750 21 15 11
199.000000 -157.000000 9.635250 28 21 18
200.000000 -157.000000 9.657000 59 49 46
201.000000 -157.000000 9.678750 76 63 60
202.000000 -157.000000 9.678750 117 101 97
203.000000 -157.000000 9.678750 146 128 120
204.000000 -157.000000 9.635250 141 121 112
205.000000 -157.000000 9.613500 128 106 98
206.000000 -157.000000 9.548250 122 100 92
207.000000 -157.000000 9.504749 126 105 97
208.000000 -157.000000 9.461249 116 95 87
209.000000 -157.000000 9.439500 123 104 97
210.000000 -157.000000 9.396000 123 106 100
211.000000 -157.000000 9.396000 111 96 90
212.000000 -157.000000 9.396000 114 99 94
213.000000 -157.000000 9.374249 122 104 101
214.000000 -157.000000 9.352500 123 102 101
215.000000 -157.000000 9.330750 120 98 97
216.000000 -157.000000 9.330750 116 97 92
217.000000 -157.000000 9.287250 119 105 97
218.000000 -157.000000 9.265500 115 106 97
219.000000 -157.000000 9.222000 70 66 60
220.000000 -157.000000 9.156750 27 28 24
221.000000 -157.000000 9.047999 4 8 8
222.000000 -157.000000 8.982750 3 8 16
223.000000 -157.000000 8.917500 11 23 39
224.000000 -157.000000 8.830500 31 55 79
225.000000 -157.000000 8.787000 50 84 115
226.000000 -157.000000 8.765250 35 68 105
227.000000 -157.000000 8.765250 11 40 77
228.000000 -157.000000 8.787000 3 30 65
229.000000 -157.000000 8.830500 0 23 53
230.000000 -157.000000 8.917500 0 17 43
231.000000 -157.000000 8.939250 0 9 31
232.000000 -157.000000 8.982750 0 3 22
233.000000 -157.000000 9.047999 0 1 17
234.000000 -157.000000 9.113250 0 1 14
235.000000 -157.000000 9.178500 0 3 14
236.000000 -157.000000 8.700000 0 5 16
237.000000 -157.000000 8.351999 0 5 17
238.000000 -157.000000 8.482500 0 6 17
239.000000 -157.000000 8.634749 0 10 19
240.000000 -157.000000 8.700000 0 13 23
241.000000 -157.000000 8.743500 0 20 31
242.000000 -157.000000 8.787000 2 25 39
243.000000 -157.000000 8.852250 5 28 42
244.000000 -157.000000 8.982750 2 20 29
245.000000 -157.000000 9.113250 37 59 61
246.000000 -157.000000 9.309000 123 150 145
247.000000 -157.000000 9.352500 122 140 132
248.000000 -157.000000 9.396000 141 139 132
249.000000 -157.000000 9.396000 182 155 148
250.000000 -157.000000 9.396000 194 149 141
251.000000 -157.000000 9.417749 199 148 136
252.000000 -157.000000 9.439500 200 148 133
253.000000 -157.000000 9.439500 200 148 132
254.000000 -157.000000 9.396000 200 149 133
255.000000 -157.000000 6.873000 199 149 132
256.000000 -157.000000 6.851250 198 149 130
257.000000 -157.000000 6.764250 199 148 128
258.000000 -157.000000 6.764250 198 146 126
259.000000 -157.000000 6.786000 200 148 128
260.000000 -157.000000 6.829500 199 147 130
261.000000 -157.000000 6.829500 192 139 124
262.000000 -157.000000 6.786000 187 134 119
263.000000 -157.000000 6.655500 185 132 118
264.000000 -157.000000 6.655500 184 132 116
265.000000 -157.000000 6.655500 180 129 112
266.000000 -157.000000 6.742500 179 128 110
267.000000 -157.000000 6.764250 181 131 112
268.000000 -157.000000 6.829500 185 135 115
269.000000 -157.000000 6.742500 185 135 115
270.000000 -157.000000 6.720750 186 137 117
271.000000 -157.000000 6.720750 185 136 118
272.000000 -157.000000 6.742500 184 135 118
273.000000 -157.000000 6.742500 184 135 119
274.000000 -157.000000 6.742500 185 136 121
275.000000 -157.000000 6.742500 185 137 123
276.000000 -157.000000 6.742500 183 136 122
277.000000 -157.000000 6.720750 181 133 120
278.000000 -157.000000 6.720750 181 132 120
279.000000 -157.000000 6.720750 182 133 122
280.000000 -157.000000 6.742500 183 133 121
281.000000 -157.000000 6.720750 183 133 120
282.000000 -157.000000 6.720750 183 133 120
283.000000 -157.000000 6.699000 183 134 121
284.000000 -157.000000 6.677250 184 137 123
285.000000 -157.000000 6.677250 183 138 123
286.000000 -157.000000 6.699000 180 135 121
287.000000 -157.000000 6.720750 180 134 119
288.000000 -157.000000 6.720750 179 131 117
289.000000 -157.000000 6.742500 180 132 118
290.000000 -157.000000 6.829500 183 135 122
291.000000 -157.000000 6.851250 183 135 122
292.000000 -157.000000 6.873000 184 136 122
293.000000 -157.000000 6.894750 183 135 122
294.000000 -157.000000 6.894750 180 132 120
295.000000 -157.000000 6.894750 180 131 118
296.000000 -157.000000 6.894750 179 131 115
297.000000 -157.000000 6.894750 180 132 115
298.000000 -157.000000 6.894750 178 131 111
299.000000 -157.000000 6.851250 177 130 109
300.000000 -157.000000 6.807750 182 135 113
301.000000 -157.000000 6.807750 183 135 114
302.000000 -157.000000 6.807750 184 135 117
303.000000 -157.000000 6.807750 185 135 119
304.000000 -157.000000 6.764250 183 133 118
305.000000 -157.000000 6.720750 185 135 121
306.000000 -157.000000 6.720750 185 135 121
307.000000 -157.000000 6.699000 185 134 121
308.000000 -157.000000 6.699000 183 135 122
309.000000 -157.000000 6.720750 181 135 122
310.000000 -157.000000 6.742500 180 135 122
311.000000 -157.000000 6.764250 180 134 122
312.000000 -157.000000 6.764250 178 133 122
313.000000 -157.000000 6.829500 177 132 121
314.000000 -157.000000 6.829500 177 133 122
315.000000 -157.000000 0.000000 175 131 120
316.000000 -157.000000 0.000000 175 133 120
317.000000 -157.000000 0.000000 173 132 118
318.000000 -157.000000 0.000000 170 129 118
319.000000 -157.000000 0.000000 175 134 131
30.000000 -158.000000 4.154250 6 4 14
31.000000 -158.000000 5.568000 9 7 17
32.000000 -158.000000 5.611500 10 8 18
33.000000 -158.000000 5.611500 8 6 16
34.000000 -158.000000 5.633250 8 7 16
35.000000 -158.000000 5.633250 7 6 15
36.000000 -158.000000 5.633250 8 7 15
37.000000 -158.000000 5.633250 7 6 13
41.000000 -158.000000 8.634749 7 7 16
42.000000 -158.000000 8.634749 7 8 17
43.000000 -158.000000 8.634749 6 7 15
47.000000 -158.000000 8.874000 5 5 14
48.000000 -158.000000 9.026250 5 6 16
49.000000 -158.000000 9.026250 6 7 18
53.000000 -158.000000 10.092000 6 7 23
54.000000 -158.000000 10.092000 6 7 23
55.000000 -158.000000 10.092000 5 7 22
56.000000 -158.000000 10.092000 5 6 20
57.000000 -158.000000 10.092000 5 7 18
58.000000 -158.000000 10.092000 6 7 17
59.000000 -158.000000 10.092000 7 9 17
60.000000 -158.000000 10.092000 25 32 36
61.000000 -158.000000 10.092000 52 68 66
62.000000 -158.000000 10.092000 55 79 72
63.000000 -158.000000 10.092000 33 60 50
64.000000 -158.000000 10.092000 26 60 48
65.000000 -158.000000 10.092000 48 101 85
66.000000 -158.000000 10.092000 76 137 117
67.000000 -158.000000 10.092000 80 143 121
68.000000 -158.000000 10.092000 88 150 125
69.000000 -158.000000 10.092000 113 171 146
70.000000 -158.000000 10.092000 118 170 145
71.000000 -158.000000 10.092000 121 166 142
72.000000 -158.000000 2.631750 143 184 161
73.000000 -158.000000 2.675250 155 190 166
74.000000 -158.000000 2.697000 175 205 183
75.000000 -158.000000 2.784000 169 199 177
76.000000 -158.000000 2.784000 161 196 172
77.000000 -158.000000 2.805750 154 202 173
78.000000 -158.000000 2.805750 123 183 152
79.000000 -158.000000 2.805750 94 167 133
80.000000 -158.000000 2.805750 70 149 116
81.000000 -158.000000 2.805750 60 145 113
82.000000 -158.000000 2.784000 70 160 127
83.000000 -158.000000 2.762250 80 172 138
84.000000 -158.000000 2.762250 98 191 157
85.000000 -158.000000 2.784000 98 191 156
86.000000 -158.000000 2.784000 79 169 134
87.000000 -158.000000 10.092000 66 151 117
88.000000 -158.000000 10.092000 66 147 113
89.000000 -158.000000 10.092000 58 136 101
90.000000 -158.000000 10.092000 50 127 92
91.000000 -158.000000 10.092000 65 142 107
92.000000 -158.000000 10.092000 81 159 124
93.000000 -158.000000 10.092000 85 165 130
102.000000 -158.000000 7.286250 81 160 124
103.000000 -158.000000 0.696000 64 144 104
104.000000 -158.000000 0.696000 49 129 86
105.000000 -158.000000 0.739500 49 125 80
106.000000 -158.000000 7.351500 69 141 96
107.000000 -158.000000 7.373250 93 161 116
108.000000 -158.000000 7.373250 92 156 112
109.000000 -158.000000 7.373250 86 144 101
110.000000 -158.000000 7.373250 109 162 120
111.000000 -158.000000 7.373250 112 166 121
112.000000 -158.000000 7.308000 80 137 88
113.000000 -158.000000 7.264500 63 124 71
114.000000 -158.000000 7.199250 61 124 68
115.000000 -158.000000 6.786000 64 125 67
116.000000 -158.000000 6.720750 69 127 67
117.000000 -158.000000 6.720750 77 129 70
118.000000 -158.000000 6.720750 107 156 97
123.000000 -158.000000 9.374249 76 130 81
124.000000 -158.000000 9.374249 112 165 118
125.000000 -158.000000 9.417749 136 192 147
126.000000 -158.000000 9.461249 129 192 147
127.000000 -158.000000 9.548250 89 160 115
128.000000 -158.000000 9.743999 86 160 116
129.000000 -158.000000 10.092000 111 186 143
130.000000 -158.000000 10.092000 113 189 144
131.000000 -158.000000 10.092000 105 183 134
132.000000 -158.000000 10.092000 95 176 121
133.000000 -158.000000 10.092000 112 193 131
134.000000 -158.000000 10.092000 122 201 134
135.000000 -158.000000 10.092000 101 178 108
136.000000 -158.000000 10.092000 95 170 98
137.000000 -158.000000 10.092000 102 175 101
138.000000 -158.000000 10.092000 117 186 113
139.000000 -158.000000 10.092000 142 209 138
140.000000 -158.000000 10.092000 135 204 136
141.000000 -158.000000 10.092000 162 235 172
142.000000 -158.000000 10.092000 174 248 191
143.000000 -158.000000 10.092000 146 221 165
144.000000 -158.000000 10.092000 106 179 126
145.000000 -158.000000 10.092000 88 156 109
146.000000 -158.000000 10.092000 55 121 77
147.000000 -158.000000 10.092000 29 99 56
148.000000 -158.000000 10.092000 68 146 101
150.000000 -158.000000 3.023250 75 176 124
151.000000 -158.000000 9.743999 93 198 145
152.000000 -158.000000 9.765750 108 213 159
153.000000 -158.000000 9.787499 110 212 157
154.000000 -158.000000 9.765750 82 182 126
155.000000 -158.000000 7.743000 79 178 120
156.000000 -158.000000 10.092000 106 205 146
157.000000 -158.000000 10.092000 87 185 127
158.000000 -158.000000 10.092000 64 164 105
159.000000 -158.000000 10.092000 38 137 77
160.000000 -158.000000 10.092000 62 161 102
161.000000 -158.000000 7.569000 103 205 149
162.000000 -158.000000 7.416750 99 202 149
163.000000 -158.000000 7.308000 76 179 128
164.000000 -158.000000 7.264500 80 184 134
165.000000 -158.000000 7.047000 85 189 138
170.000000 -158.000000 9.004499 81 183 135
171.000000 -158.000000 8.982750 89 191 141
172.000000 -158.000000 8.830500 92 191 141
173.000000 -158.000000 8.743500 72 163 114
174.000000 -158.000000 8.721749 43 127 77
175.000000 -158.000000 8.721749 45 122 71
176.000000 -158.000000 8.700000 61 134 83
177.000000 -158.000000 8.656500 107 176 128
178.000000 -158.000000 8.439000 95 164 119
187.000000 -158.000000 9.461249 127 188 142
188.000000 -158.000000 9.526500 69 104 71
189.000000 -158.000000 9.570000 59 68 48
190.000000 -158.000000 9.591750 74 66 55
191.000000 -158.000000 9.570000 71 56 49
192.000000 -158.000000 9.526500 53 38 33
193.000000 -158.000000 9.483000 46 32 29
194.000000 -158.000000 9.483000 47 35 34
